# 3D point list with one line of data per point:
#   POINT3D_ID, X, Y, Z, R, G, B, ERROR, TRACK[] as (IMAGE_ID, POINT2D_IDX)
# Number of points: 380, mean track length: 4.1073486148565825
5166 -4.941422972624526 -0.77579733749759727 2.2029985561955869 166 154 6 0.72782052569301525 59 3818 57 3885 54 3823
34675 4.1913792489849069 -1.267735894458669 3.3288914514967636 232 245 246 1.1989191033929016 69 1145 68 1797 66 2067 65 2472 64 2704 63 5099
4808 -4.4297628667221725 -1.6459718935625864 3.1279738665702856 249 247 246 1.3254130752968254 61 6118 59 6922 57 6583 62 5550 52 6661
4443 -5.225061187365732 0.7007655013855546 3.1525043025601556 20 29 2 0.8512463991250756 58 2772 60 5047 59 2958 57 2531 54 2935
5834 -4.0349565608359068 -0.058493452945555205 1.5963676510208513 210 194 83 0.82227041284236579 57 8274 59 4500 54 4539 52 4562
7208 -3.4986014195498356 0.82618966923544279 2.8266120043038709 168 158 57 1.199297745349696 53 6013 52 8389 50 6376 55 6679
4444 -4.2249982455870843 1.5055235595052736 6.1858573783536439 93 133 60 0.63414525819007028 58 6119 59 2960 56 6039 57 2703
34529 2.8305031395076301 -0.14884447766456368 3.5865486580944741 150 161 146 0.52305535719648144 73 6590 69 7848 68 7684
4653 -4.7281260846136473 -1.6757436278157973 3.0564618850146972 106 101 75 0.44538973775285268 61 6011 59 5423 62 6816
33654 1.4309689004356023 -2.138206583278965 11.014229112170112 41 46 2 0.6320735928781881 80 1609 72 2027 78 1391 69 3398 68 3368 66 3493 65 5640
5327 -5.2927699582114203 1.0064408003988117 2.9037144338049963 160 173 119 0.74530591714883032 61 8901 57 6117 54 6303 62 6487
4445 -3.8339091299988257 0.73744447862618945 3.2526069584142352 99 89 78 1.3394408073190367 60 6101 59 2962 57 4936 56 3632
4812 -4.5556308551215654 -1.5967368710059411 3.0967459436335147 43 36 32 0.93824603122310168 56 3580 60 6113 59 6967 57 3610
7202 -5.6394754474544717 1.5444464865280516 5.1699688838375293 11 27 3 0.92506886479327399 53 5980 54 6215 52 8360
4446 -3.817164609675761 0.78335943596645652 3.1465100608882555 9 18 0 0.78859515804977631 58 3668 60 5087 59 2992 57 2728 54 3004 53 2997 52 2883 50 3071 55 2658
32789 -2.6362062811510527 -4.5325463182704819 10.001769497363281 99 115 131 0.94629004540482098 74 5142 76 5058 70 5236
5321 -5.7014342883550073 1.7200987932358744 4.9922740308260414 28 26 6 1.6965922342321929 59 6434 57 6099 54 6279 53 6058
33668 2.1086911550687679 -3.9240376140560582 10.829795763925164 130 130 92 1.1794461180711724 70 1869 74 1867 72 2318 69 1978
4448 -4.0323826604485999 0.90114391660961668 2.9162438427863648 17 13 0 0.43102721698858865 53 1309 59 3039 50 2632
4449 -3.7818339781326835 0.89802770083262606 2.7688252148256467 39 34 1 0.019346437591805651 56 2620 57 990
4752 -5.1111329358552844 1.8285954406694753 4.824100142670507 1 3 0 0.4519397207557847 56 6261 59 6496 57 6150
33541 3.3297792635647272 1.4789735903936987 3.3578685584926089 227 89 61 0.50830894717723163 70 5970 73 12750 72 6435 69 6390
5778 -3.5226957477030796 -0.66773920399818754 3.6689158912593638 79 96 22 0.53457416360119447 53 3956 54 3403 52 3402 50 4283 55 4359 49 4202 48 6865 47 8533 46 4330
4452 -4.7678551702735739 -0.027025466740442705 3.1376193803921999 69 54 0 0.55613926512890433 56 2686 60 3142 59 3099 58 8443 61 2316
5271 -4.6550427962757182 -1.6201475445818494 3.3132657285898373 251 250 250 0.89232553957423233 53 5576 57 5531 54 5594 52 5597 50 5906
4453 -4.8854683093639295 -0.083760307697650402 3.3724003429484473 255 232 210 1.6451187021776121 56 3695 59 3116 54 1482 52 3193
4756 -4.2793141242873673 1.8993218251142674 4.7597966636341811 20 14 7 0.83989935554178941 60 6443 59 6516 54 6426
4454 -4.7301027866228518 -0.088040697201188123 3.1133905953065275 16 8 0 0.74799869076969383 56 2283 59 3121 57 8204
33451 2.0352671764132402 1.8699352778145415 4.564520364853327 65 59 40 2.1795962276896628 71 2422 73 8091
34266 1.8676728450042297 -2.8264647660670459 11.506379967992634 24 35 12 0.44725277196645802 72 2689 69 3466 68 3433
36664 5.4353449178812481 -0.93474942254463056 3.8374750107225046 206 237 243 0.39930338294104639 64 2379 63 2040
5265 -5.1506066947070588 -1.5569947002290621 2.8607549838840933 46 43 45 1.3471489588447125 59 6925 57 5472 54 5552
36092 4.3105435947088271 -1.4078812486128758 3.3653673822181815 230 239 251 0.99431859631430675 65 163 64 135 63 97
4455 -4.139460596747818 -0.1242396314340795 1.5304248756383783 204 207 100 0.58764175490665393 56 3059 59 3131 57 3107 54 3167
7830 -4.2683950868147313 0.29420346241347128 3.5049592828173579 115 159 50 0.015241730959217478 54 2426 50 9047
36685 4.6115137405763234 1.0199482545657281 3.5324302195725505 47 42 10 0.41831156215894305 64 2020 63 2507 51 1793
4456 -5.2706636297409082 -0.18449350342775475 3.095994251193158 123 157 44 0.65945300352699787 60 4577 61 4552 59 3152 57 4457 54 3178
36541 4.5498883235034011 2.0180109692154722 5.7307917785149609 233 58 32 0.74460013605695152 64 572 63 584 51 636 93 561
33538 3.4750809448102919 1.4628095128810601 3.4682030576485743 143 162 83 0.30106029264026629 70 5929 73 12689 72 10779
7323 -5.1954334247404379 -2.9884712824556185 10.418491755390461 88 89 80 1.3129414642155011 52 403 53 407 50 427 42 740
34340 2.8825767136937142 0.66472031708958745 2.669321048059643 44 57 0 0.35623473275980555 72 10916 69 4701
36038 5.1162392729148918 0.81928607912849616 3.2179856791110892 172 192 136 0.73896089368130891 66 6100 65 7824 64 6122
4457 -4.6911567661304012 -0.18785706033227317 3.0104988076399768 190 211 163 0.52275576350944175 56 2263 59 3154 57 2324
4760 -5.3085020167459867 1.0919036019854769 2.782012034670053 184 198 154 0.85136526632193676 56 6312 59 6542 57 6206 54 7278 62 5301
33623 1.6938281237865527 0.29774937381588973 11.648272158331539 24 32 5 0.94525080110212778 77 1360 80 1381 72 1219 69 1504 68 1532
4458 -4.0842826387101621 -0.1947125109369689 1.6237056849987095 161 139 1 0.48494678383294171 56 3100 59 3178 57 3168 54 3766 53 4255
4459 -4.1493528042766714 -0.22098780415951785 2.1271930349098374 164 192 136 0.52382141715551267 58 3144 59 3186 60 3222 57 3740
5786 -3.3993745001077027 -3.2076639435268111 9.9412864724159906 198 234 250 0.64256057291056978 56 3434 58 3830 61 3865 54 3605 55 3832 48 1990
4460 -4.4313140274231051 -0.26590649517318604 2.5358050186656111 240 238 175 0.51832700165909984 58 2216 60 2245 59 3197 62 2333
5279 -5.161996868706173 0.53627310757165614 3.4521940757497891 191 208 168 0.99349957173645975 53 8803 57 5695 54 8945
34634 3.1741752164060943 1.0110872503028892 3.641623999816078 162 179 130 0.74541373082237761 69 2717 68 1279
4461 -4.9332539269513846 -0.32520723151702868 3.173102029620265 144 147 1 0.33723393540013141 58 3169 60 3249 59 3206 62 2331
4764 -5.2667339831549906 1.1099042722243102 2.7113112119182743 114 62 38 1.9079010920298944 60 5284 61 5302 59 6560
4462 -4.6159141678392785 -0.36488652826483514 3.1258221534820709 90 111 62 0.26452437420014002 56 3153 59 3225 57 3217
5273 -4.7867610906083247 -4.0094733585941498 9.7084443848736601 15 50 35 0.54322625922419709 53 5621 57 5582 50 5953 55 5989 49 5882 48 7275 47 7720 46 6304 43 6739
4463 -4.0534361746961283 -0.27598560929820642 1.7179005346613785 248 195 170 0.19871584485127433 56 3157 59 3230 57 3229
32944 2.7144889995694133 -2.6935159196192409 9.9630146810797076 221 238 246 0.96678996374853776 71 5724 70 6758 73 5588 72 7197
4465 -5.8526141555427609 -1.0911436287297176 10.40564497806437 31 53 12 0.480949872497831 58 3210 60 1855 59 3260 56 3176 61 2140
32954 2.3758367619923511 -0.70735688495511218 3.698834139737603 50 51 39 0.43274607399120657 71 6286 70 6999 73 10692 72 12960
34571 3.9988783217334762 -0.83325059613251162 3.8560149364715257 11 25 6 0.46123537449162794 69 200 68 415 66 428
4832 -5.3944122978134823 -0.53329549788635866 3.2751379922670956 116 128 70 1.5347065303842602 60 8011 61 4318 59 7334
4466 -5.3414334234163334 -0.48347581154742658 3.2260160128380022 36 36 5 0.44237746553822782 56 4189 59 3269 57 3246
33415 3.4026904281738082 1.1927412521701257 3.5250222775493092 207 205 149 1.1512167529503625 70 5100 73 7542 69 6151 72 6205 68 4732 66 6237
33326 -2.5958110758485677 -2.9840992815601992 11.216220389757895 27 36 0 0.86100485486860068 71 3682 73 5196 74 5411
33992 3.6482554747131646 1.5277458498078067 3.4021671388285801 20 27 1 1.0312969213169518 73 4689 72 10969 69 5066 68 6137 66 6446
4467 -5.6234132610683574 -0.55628754280782122 3.2423880681128798 100 98 80 0.63919810682358946 58 4249 60 4325 59 3293
5858 -3.823329845910187 0.46147684426396923 3.0898766425879622 36 64 0 0.55554233149350318 53 8788 54 4904 52 8043 50 9281 55 6298
34649 4.1554007731777798 0.72538203538471513 3.8833765499210009 19 35 0 0.86827860372581223 69 1364 68 1417 66 2535 65 1278 64 1658
4468 -5.1326766472106478 -0.52787857415088257 2.7583288628716187 182 183 68 2.1537452591252122 60 2178 59 3308
5351 -4.9741034575891296 1.9619644657555853 4.1837018214963004 14 8 6 0.57694151575145436 56 5335 59 6644 57 6312
4469 -5.161143090059233 -0.54710430259154741 2.6720801473880185 63 62 0 0.52723490507424675 58 3268 60 3357 59 3324 57 3295
32958 1.8393261934813618 -0.60957797649859402 3.8137417058107341 8 16 2 0.4702898140408307 71 6380 70 7111 73 10926
4836 -4.8340648858816238 -1.0267117291305519 2.6333523280804561 41 38 51 0.51494870395263559 53 7121 59 7381 57 7042 54 5364
32813 3.0233244762156675 0.70345964123114868 2.8094799746753627 32 4 0 0.85423716800322413 71 7541 70 5470 73 7330
34511 2.7920731339167175 -0.71206339493841919 4.4416800323994154 45 60 7 0.56290612481021451 72 12730 69 7480 68 7289
4470 -4.7294816957512875 -0.62079872652109369 2.8113160673300253 62 83 35 0.48409029715774049 56 3242 59 3352 54 4073
5345 -5.6899871644605415 1.8367606668811898 4.0963997511695593 114 101 78 0.97406887724763669 56 2710 58 5401 60 6439 57 6277
33628 2.9555286065817805 -1.0300331124471878 4.0014363445556187 51 67 67 0.93785363713661019 71 1663 72 1433 69 2013 68 2874
4471 -4.6355866510544068 -0.701064536053562 2.9036972208866136 70 82 42 0.830863439883608 56 3272 59 3389 57 4061
7910 -5.7762812867483184 -3.665368705655808 9.8526158509362816 84 102 71 1.2600329059350519 50 653 56 819 55 462
32823 3.1065724920945419 1.0239031089070088 3.5402740073368628 145 161 115 0.36719142227218277 71 7656 70 5591 72 6086
35537 3.8377973709752866 1.6423587698557154 3.7075540208746145 31 32 0 0.33484525324114567 68 6139 66 6450 65 4887
4472 -5.1689748771198101 -0.68423404027975121 2.6849811947610358 108 94 6 0.7787739135214552 61 4116 59 3393 57 2166
7403 -6.7712348889793752 -2.1664625284163117 9.8304271716065728 54 59 16 0.015946375203211696 58 7791 50 1722
36774 4.2198250623572937 2.1214714010526818 5.319969256002774 90 28 36 1.5339900953961223 64 4881 63 4661 51 5787
4473 -5.1789432561357645 -0.70887074994233479 2.6642538306061536 44 40 6 0.31369714748503719 56 3296 59 3401 57 2161
4840 -3.1483720583995769 -3.1144913328569639 10.213151981394633 26 57 59 0.53840971765552115 56 7276 58 7375 60 7444 59 7416 49 7710 50 7560 52 5957 61 6382
4475 -5.1556910588036073 -0.879019423947487 3.390527310717276 208 217 152 0.79220121821201295 60 3427 59 3417 58 1615 61 2037
32908 3.1350490626957206 -1.3592803441960366 3.4061007604266131 172 182 147 0.76283060768086586 71 6014 70 6445 73 6073
33565 2.5829421471905456 -1.6140986302304892 3.3366978057766676 35 42 35 0.96633543664190347 73 156 72 108 69 358
5866 -4.2800248226678903 0.53900554671632517 3.1101971300281481 75 107 17 0.51209566479332969 56 4856 54 4950 52 4929
4476 -4.1029661349495239 -0.43267662092609244 1.2252157787660996 117 114 30 0.3572180896346504 53 5943 59 3430 57 3683 54 3913 52 3938
5359 -4.6887844361765181 -1.9234621385056323 3.169212365377319 239 232 202 0.65599904716492674 53 6510 57 6459 52 6448
4477 -4.2350581683419923 -0.43927020268032763 1.2248521131147727 240 208 64 0.37704979992135074 56 3316 59 3432 57 3978
4844 -3.3498746828396788 -2.8098601439152566 10.714404329333824 233 252 242 0.28230715036627635 58 6613 61 3984 59 7522 60 7563
4478 -4.1196699896480844 -0.43810133226478709 1.2212275426161965 58 46 0 1.0271634394373985 53 2117 59 3436 57 3407 54 2117
5353 -4.0651439512095102 -0.025867252369747705 1.596537794057409 124 129 4 0.64619137372450486 59 8596 57 6328 52 7697 53 4498
4480 -4.6011928534088229 -1.1409017754816579 3.3028935715565173 172 167 161 0.29983364778619709 56 3741 59 3523 57 3477
4625 -5.0946815282516127 -0.6406536329554432 2.7518487559327602 236 238 174 0.43464945710186637 56 7717 59 5265 57 4100
4481 -4.4624623765458074 -1.3599143036694614 3.8215032371075335 213 246 249 0.86239775626217785 56 7217 58 2022 60 3533 59 3538 57 2060
5142 -4.577544340247087 -1.127072613135514 3.2820102957338664 154 148 141 0.82319581910990669 53 3603 57 3474 50 3731
4482 -3.6276870156540633 -3.3086466253402804 10.097076905666956 208 245 252 0.93252761958097785 53 3630 59 3544 54 3610 50 6092 55 3838 49 3903 48 3865 47 3887 45 4059
5651 -4.0087206205792478 1.0876940572841707 2.8262570818366561 0 0 0 0.13788429226064039 53 1269 57 2615
4484 -4.2650889134203336 -1.5087582536140516 3.2504309082768454 237 247 255 1.4607657470455016 56 3534 59 3635 57 5566 54 2008 50 2771 55 7557
34505 1.1831194604462512 -2.2159613849635629 11.293938745079572 31 41 1 0.33608478462466324 72 7473 69 7405 68 7215 66 7615 65 6630
4629 -5.1958677425672706 1.4895639862305843 5.4625760150761753 79 109 62 1.3229089822854994 60 6208 59 5313 57 6009 54 6167 52 8308
33630 2.7370828383652732 -2.841289104834404 10.083589031233014 205 231 241 0.98972364486616204 70 1661 72 1440 73 1693
4485 -4.7139404646958356 -1.2856779008575543 2.6291827860640442 77 85 66 0.35071672249915303 56 3541 59 3641 57 1991
33483 2.1172579210689544 -1.1597229358882752 3.4667645379302336 233 239 227 0.70753691078414838 71 6306 73 9939 72 7083
35881 2.0320144670523801 -1.2446197488090143 9.9010590724629424 252 237 177 0.10283161604379394 66 4156 68 3918 65 3933
4486 -5.2100101189629218 0.29619318752098645 3.1139524205048317 123 131 31 0.67571636881171382 58 4787 59 3656 57 4723 54 8766
4487 -4.1659208746043523 0.52186183843550837 3.1045264319991435 16 35 0 0.7082817662095946 56 3686 58 4909 59 3662 62 4959
33394 3.1189038059816223 0.40308947683240881 5.0622111120461319 25 37 15 1.3877155397117824 70 7875 73 6963 72 3548 68 4297 66 4521
36845 4.5653040973777799 -1.7742145964201004 3.2987691008248845 34 46 4 1.280830975611347 64 4713 63 6068 51 8252
5140 -3.9533442255161049 -0.34654723627412704 1.8336608219656141 34 38 2 0.80889777027782195 59 3282 57 3277 54 2214 53 2224 52 3367
33843 3.5710853474081272 1.0829435014540643 3.600947815607384 103 123 64 1.220298581677459 73 7483 72 6136 69 6082 68 5809 66 6896
4488 -3.8655279296969316 0.96630918453755643 2.7635404016061562 101 115 30 0.68466354428645604 60 6346 59 3665 57 6125
36573 5.3484501034095278 -0.74376005938295064 3.4184641650338001 11 24 12 1.7781370417047959 66 1720 63 834
4633 -4.5209758761337646 -1.9525086572143069 3.0637755972201588 201 173 171 0.46775589462544709 56 5349 58 5408 59 5330 57 6418
33698 1.2635702558073407 -2.0788018869850524 11.207201088695079 42 51 2 1.4699598895301396 80 2018 72 2769 78 2702 66 4026 69 3910 65 2630
4489 -4.0255269823952347 1.031804130367395 2.8984451550234835 134 87 1 1.6178381172873566 56 6241 59 3692 54 6364
34372 4.0149228767351923 1.2505016526818935 3.2194761919612711 125 148 65 0.55507666258720334 72 4863 69 4984 68 6017 66 6335 65 8042
33783 2.607586857191412 -2.8580198404750532 10.3245901198887 56 71 74 0.5482646047150399 70 3373 73 3453 72 4414 69 5530
5150 -4.5636751884312705 -1.6175021973676855 3.0733820136319214 36 48 47 0.71630968206416679 61 3396 57 3621 60 3688 54 5540 62 5546
4490 -3.8337733857542755 0.47243158972539612 3.0655063865437251 56 65 10 1.7654675972315759 56 3631 58 2418 60 1878 59 3699
4491 -3.9405053300218813 0.97365622770120663 2.8430296352781386 231 38 33 0.53534655680323573 58 5125 59 3751 54 5192
7192 -3.382220441454435 0.7382842939260994 2.7654587815330247 31 17 0 0.67814582808770074 53 5033 52 8332 50 6315
4492 -4.4926367244637389 1.5113143974476659 5.7404083118856573 55 81 28 1.0033474657056884 53 9052 59 3755 57 3714 54 5086
32891 3.2849929216314413 -1.542532214608519 3.4910197030204779 63 66 78 1.5274395319765228 71 5858 70 6364 73 5949 72 6853 69 6721
4493 -3.1052574980060266 -2.9911580841799403 10.545395872585855 226 249 250 1.4940401892566684 53 7213 56 3777 59 3788 54 3572 52 5874 50 7629
7186 -3.365144491331892 0.70786808684995695 2.9079418119374587 24 14 1 1.4145844197197064 53 4985 52 8273 50 3067 55 2650 55 6551
32976 -2.8368311926039369 -0.2863938822857921 11.048421261205686 22 34 6 0.52429167935818499 71 6862 74 8488 70 7562
34358 3.4810292167294419 1.2885953198680282 3.8343656212327604 12 18 0 1.4105047216977058 72 10348 69 4856 66 6239
4495 -4.2233240369087568 -0.46348093078521058 1.2265100901294159 253 235 142 0.78786109739411558 56 3887 59 3884 57 7297 54 7498
5148 -4.6987939865165451 -1.5762627548782879 3.0730880840221144 20 25 33 0.58152464935879244 59 3132 57 3601 54 1994 53 1983 52 1970
33697 2.3161663458665185 -2.1264164898449152 11.313982267230672 26 37 0 0.46761337446307849 70 3280 72 2759 73 3316 68 3363 69 3394
4496 -4.0984712026029602 -0.45925508449709224 1.2266378876750166 183 186 88 0.6690129725607612 53 5903 59 3887 57 7291 52 6548
4705 -5.5059991989774995 0.50712203563384262 3.0963523663744619 197 208 185 0.5412750846870148 60 7031 59 6104 54 8978
32986 2.7715780814392104 0.09550189860133862 3.0531167825843273 141 155 46 1.4631689062893141 74 8619 70 7670 73 3914 73 8723 72 3437 69 4316
35384 4.0172203376353526 -0.067099239851947018 3.974181633967159 1 20 1 1.3111848269316089 68 2244 66 4326 65 4130
4497 -4.0948276815859348 -0.45174889390223677 1.2262181396635556 148 149 45 0.99013843415504232 53 5913 59 3898 57 3949 54 7507 52 6090
5222 -3.770704095243762 0.94441141699276054 2.973485033048624 8 19 0 1.9511810283304445 59 5034 57 5053 54 5158 52 5129 55 5408 50 5352 49 3003
34731 4.0297324735493714 0.63507463081817328 3.9765674259115786 42 45 3 1.1224015805329195 69 3006 68 2777 66 2772 64 2183
33797 3.2371399794367104 1.468599365401865 3.2682508208061889 6 24 0 0.28776926838249617 73 7785 72 4810 69 5039 68 6109
4498 -5.6003450096497414 -0.8951886118979302 3.177924808620995 176 173 160 0.28239397777414132 56 3898 59 3917 62 3961
5731 -3.7159307336684426 0.45424356125517346 3.1085631095798951 25 49 9 0.61774698207329182 53 4786 54 2826 52 4877 50 5080 55 5137 49 4982
34740 4.1534730516569729 0.94419556495545243 3.8655333106055472 41 38 6 0.48692105017725673 69 2447 68 2888
4499 -4.1216764139942192 -0.43034046965177863 1.2245993561534907 89 73 25 0.75695002217195728 53 3509 59 3935 57 3672 54 3488 52 3492
33358 2.6345969520124193 -1.6567228813974402 3.8281993404993382 22 26 34 0.34439497870333902 70 6415 73 6019 72 6890 69 6771
4500 -4.1098096099429755 -0.42896534094956829 1.2240497533755201 149 151 36 0.88150059704757344 53 5952 59 3936 57 3981 54 7565 52 6355
4502 -4.65706351728788 -0.74875933215620427 2.987113201503627 30 39 0 0.23234383017120946 56 7625 59 3978 57 4030 54 4002
32845 3.1662621226926264 1.3168484944300001 3.5383543558666255 234 210 184 0.63957379049366847 71 4833 70 5761 73 7600 72 6609 69 6218 68 5944
33788 2.5246132361954881 -1.2178189265377657 3.3412867763046719 44 13 1 0.34370418067308356 73 5041 72 4515 69 3574
7783 -3.229121573502777 -1.9870941397257349 9.7622533688257924 206 222 177 0.41341593734800858 53 3854 61 4118 50 7938
4503 -5.1789658775409855 -0.66115724463514336 2.7235603608312711 61 40 0 1.6103853763906029 60 7801 59 4021 61 6997
5220 -3.7945749191280469 0.88549370086143686 2.8473926935943408 181 199 134 1.2761577084588822 53 3053 57 5047 54 3045 52 8416 50 3476 55 3183 49 1403
4504 -4.1359017186041633 -0.38581269564830795 1.3779380484685551 73 76 0 0.18867687081070525 56 4056 59 4048 57 7557
32855 1.2065170179290836 2.0512917743752648 4.4147054431699955 23 12 0 1.3079292552313346 76 12982 70 5865
34084 2.9944327728370688 -1.360121538167826 3.500394986316925 31 40 40 0.11213416792187691 72 802 69 769 68 1782
36806 6.2485894534997399 -3.6283487185669507 10.514628207662904 176 170 95 0.56133460600399598 65 2995 66 5565 63 5172 51 5114 93 5176
4713 -4.3564461885407741 0.65041844063948451 3.2821998676475421 142 182 64 0.97015803181736759 60 6033 59 6187 54 4993 52 4966 53 4885
4505 -4.6879049848975445 -0.60165125461714697 2.7910657756861852 12 20 1 0.24617876064428798 56 7772 59 4057 62 4126
5230 -3.7359568942063839 1.0521278321562588 2.8210971308690009 25 35 0 0.58656589964259109 53 6181 57 5135 54 6403 52 8533 49 6708
4506 -4.1372411881322728 -0.36578597502861859 1.3889780483232967 133 105 0 1.0778879004765365 53 3415 56 3225 59 4077 57 4125 54 4077 52 3722
5739 -3.6013255458416631 0.26480189393760351 3.935729113472628 46 49 26 0.86208640825459104 53 3125 50 3211 55 3012 49 3387 54 2894
36354 5.2622091372191759 1.6613601800931983 4.0706148925571286 184 192 141 0.54668231256186162 65 8101 64 6373 63 8135 51 5807 93 5861
4507 -4.4297631791878826 -0.6328625596783477 3.4757966783149343 88 116 64 0.24191029544706041 56 4096 58 7884 59 4095
7272 -5.1980497786738331 1.7002899274172663 3.9319430385290755 6 6 1 1.8540797444178578 57 1164 52 1796 58 1182 60 1236 56 1094 61 1262
33725 3.2440789168918736 0.49563368765111254 4.9514022399600215 106 148 47 1.3777787341469852 73 7021 72 3328 69 4477
4508 -4.1444916596071666 -0.3478097292329293 1.3913340044425089 210 176 53 0.85969242506738575 53 3400 59 4102 57 4157
4717 -5.4600883101448678 0.733858297850147 3.3628602142015391 95 113 64 0.45070392067365145 61 8328 59 6233 62 6275
4509 -5.516510119897978 -0.61980252225954802 3.2929724556245064 30 47 8 0.91076938338991253 58 4203 60 7925 61 7147 59 4104 57 4181 62 4194
7266 -3.9333280858991904 1.1921817961310766 2.8244297896825103 128 135 44 1.4988136526548517 59 5180 57 5198 54 5293 52 8607 60 6484 56 6360 55 5775 49 5723
4510 -4.5374378251239724 -0.61223465902719809 3.4756171962257252 17 19 8 0.29947392953526819 56 7862 58 7904 59 4107 62 8019
4511 -4.2127101603587516 -0.3819322753608268 1.7067749393614973 243 238 162 0.44877260962435406 58 4224 59 4116 57 4171
33354 2.4610448095125932 -1.6224945588180597 3.3742299875409221 27 28 31 0.52359224997795417 74 9465 73 5915 72 6842 69 6711
5228 -4.7330637783133103 1.8437867957340854 4.9013062953121844 40 29 21 0.24304354543608012 59 5096 57 5117 50 5442 53 6140
4512 -4.5358072462712373 -0.5726989805150976 3.4902894615948021 50 54 37 2.1019494263103691 58 4247 61 2710 59 4140
4657 -3.8158342788287802 -1.3599879231366898 2.541339821195193 114 104 95 0.71140265721159324 56 5480 59 5452 57 5441
33658 3.7905902636264948 1.1382458982307491 3.6347474697101432 9 17 0 0.6502988272950575 73 2386 72 2058 66 2996 65 3238
4513 -4.6774924680695014 -0.50874244784120659 3.1792902169621491 37 35 6 1.994096488179109 56 4159 59 4153 62 3353 58 4279
34332 3.894721493306343 0.70656199490877525 3.9576479028169245 51 54 3 1.161815064562683 72 5251 69 4631 68 4486 66 4710
4816 -4.5852455884884398 -1.564058272553535 3.2298793371039753 237 241 245 1.3069751417828335 53 3722 59 7052 50 2044 54 1783
33679 3.2291917440672946 -1.4573529817891793 10.924936722414813 28 43 0 0.70738439046662327 73 3244 72 2457 70 3856 69 2130
5174 -4.3688590297966217 -0.44507892410870437 2.4879588698982902 14 27 0 1.8380433017816822 58 4266 60 4341 57 4210
4514 -5.8565234480648156 -1.2109723603518667 9.9813574572819324 24 32 0 0.1899557277665043 56 4164 58 5345 60 4362 59 4163
32793 2.8821405109158706 -1.2722756092876271 3.4424410706792505 239 244 249 0.41134433596870507 71 3463 70 5256 73 6205
7389 -3.9623077186793947 0.034874025546991164 2.0660199616918691 255 251 149 0.10143994896070142 53 1482 50 1497
33672 2.0166495994950853 -3.3243023364024165 11.934410758887068 39 62 51 0.68824569457505536 73 1931 72 2358 70 1900 69 2009
5683 -3.5547370405962728 -0.56400263307108944 3.6226492307228675 172 176 109 0.70459239813967312 53 2214 54 2204 52 2213
4516 -5.1913586867687709 -0.47870919625632175 3.3217697197488802 191 179 131 0.57334140629396002 56 7989 59 4195 57 5281
4661 -3.8771395746661521 -1.2390498763782114 2.506614468264913 190 166 43 0.90093260251403051 53 5548 59 5528 57 5523 58 5644 54 3793 52 5584 50 2759
5335 -4.7190590369492051 1.5526000012418892 3.9604061539134792 14 13 5 1.5818184549139713 53 6186 61 5258 57 6192
4517 -5.6133224319787303 -0.46645834211758735 3.2795207261115511 53 51 33 0.5660475265052195 58 4324 60 4395 59 4206
4820 -5.1621729189462542 -1.3274007616022263 2.748512855522617 237 245 250 0.29319100684966987 56 6934 59 7113 57 6786
4519 -5.2977475068917075 -0.41778274696149365 3.1351591182669258 167 129 21 0.31116901095940969 56 4228 59 4228 57 4306 54 8099
5172 -3.9289748502701722 -0.37628325841678462 1.7534851273941863 142 141 54 0.9993232739277973 53 3391 57 4167 54 3378 50 3516
4520 -4.1051813765488783 -0.27337687297844315 1.9178743934843931 255 110 114 0.38564960761024275 58 3183 59 4258 57 4324
36605 4.687559793957484 2.1545197268702831 5.0921500886376156 63 2 5 1.0547948721655316 66 2693 63 1207 51 1153
4665 -4.568517957875005 -1.3871131229705176 3.2329644795562338 64 51 52 0.50285156505022477 56 7054 59 5622 57 5625 53 3763 50 5985
33602 3.4696953921909044 1.4782168766427204 3.4657654357909662 156 168 107 0.6392157669714309 73 1032 72 913 68 1264 66 1281
4521 -5.4621409192935095 -0.36844496886654671 3.1756645804508441 112 139 71 0.67923982562316876 60 4454 59 4265 54 8170
4824 -4.7193282741526259 -1.1793995273268598 2.6056182190148207 136 131 90 0.53953822622297942 56 5637 58 7119 59 7193 60 7183
5182 -5.139055724690988 -0.23935993277751319 3.1966577400970917 245 248 191 0.18572599875923027 56 4365 59 5283 57 4421
4522 -4.8716313129446975 -0.3282544479719004 3.1777842968647914 33 36 0 0.92589881782396843 56 4301 59 4282 54 4349 52 4367 53 3285
33535 2.9695870843862879 1.3738611320640464 3.1631706814514047 99 111 36 0.49421867243727707 74 7718 73 12652 72 10725
4523 -4.076510372263086 -0.2499347135225547 1.901909487705751 176 25 29 0.30815923246779303 56 4304 59 4286 57 4343
33382 3.1304200693457944 -0.23363341290423054 3.7150055764301149 10 16 0 0.61183053266853871 74 12133 73 6541 69 7788
5850 -4.156687823297843 0.3783757730466355 3.2082601114491092 2 24 0 0.69218165138591947 53 4733 54 4826 52 7959 50 9193 55 6211
7224 -4.7313920646937255 1.4765022444158482 4.0641576109727469 14 12 2 0.69896222476709435 54 6332 52 8490
4524 -4.4967503329164957 -0.29870151445574411 3.0069991536286103 19 16 0 0.5024154387574068 58 8186 59 4292 60 3241
4669 -4.4490733474155437 -1.4294058066386983 3.6505750715016392 224 236 210 2.9208193075597082 61 6762 59 5689
5343 -3.9222213890289623 1.1926976959815137 2.814264817466126 194 179 104 0.70094992010577972 53 6646 59 6587 57 6252 54 6496 52 8613 50 6679 55 7033 49 6837
4525 -4.9656487447484112 -0.30598496580756407 3.3066571388623034 195 216 151 0.58961766061821042 58 4426 59 4308 57 4377 54 8242
4828 -5.1225431817847742 -1.0251422135631494 2.328648609301005 78 73 34 0.41902045583905229 56 5681 59 7276 57 3745
7218 -3.4035605262424382 0.86358794738517941 2.6549931596677236 66 36 0 0.64378564669617611 53 5108 52 8448 50 5381
4527 -5.2606718902815128 -0.24565402958653271 3.1766327324500105 25 44 0 1.187980913071605 56 6057 60 2258 61 2203 57 5295
5180 -5.5116054291289185 -0.36612980150203539 3.1656588578736704 28 59 2 0.85186535631770499 61 4433 57 4347 54 5398 62 4389
4528 -4.7423739732663828 -0.23921456024764362 3.211173370233658 123 147 80 0.20362437175845213 58 5353 61 5461 59 4359
32879 1.7482750080347806 2.3106651483536949 4.2488364053879133 93 96 64 0.16334938662608442 71 8208 70 6130 73 7918
4609 -4.3545995080724254 1.9319083114945734 4.6706990892213192 37 25 13 0.33227764817376793 56 5154 58 5206 61 5279 59 5152 57 5168
4529 -4.7433205324024073 -0.17841574038772387 3.1937687319679564 31 45 1 1.0967146087703692 56 8263 59 4401 57 8120 54 8354 52 4454
5126 -4.5745438508962595 1.9430948353774229 4.6597965788092397 96 86 74 0.6954041150918292 59 5158 57 2860 54 3099 53 3653
33479 2.5878234303860324 -1.170773330826087 3.2968748107809351 227 142 89 0.68711925026569087 75 8273 73 9873 72 8739
33829 3.4705043534188342 0.47242351856507842 5.123235260176501 13 35 1 0.78148291165205086 73 7014 72 5621 69 8281 66 8467
4530 -4.1284250395251982 -0.137325880691442 1.5352072292732977 177 189 76 0.10859070343314375 56 4438 59 4423 57 4470
5635 -4.0141035713029245 -0.18630907114663905 1.5740687618761424 180 181 17 0.10192985094215264 57 1499 54 1525
34644 4.1620895698280052 0.8195279810413626 3.9392229017236242 219 241 163 1.0620046685786446 69 1348 68 1401 66 1407 65 1741 64 1969 63 2432 51 2363
4531 -4.7982158693945367 -0.10285634298918167 3.0495080257371066 38 31 0 0.34982171950206797 58 4554 59 4435 60 8423 61 7637
4532 -4.5959618802463975 -0.081404497256518812 3.5729631231062888 142 138 119 0.62264067892096464 56 2285 59 4441 57 8189
32867 1.4965943224429403 2.2327417792999991 4.5699883226962053 171 151 105 0.079546962541762467 75 2483 70 5958 73 7775
34706 3.4378046570819643 0.59001634705220607 3.9761338337468999 153 175 134 0.73048181964723702 69 2359 68 2369 66 2503
4613 -3.8013379198278385 1.1617211970469659 2.7881934554759926 143 164 78 0.37825377125458026 56 5329 59 5177 57 3647 54 3259
4534 -4.332830380223248 0.007002745239034461 3.9376785999470045 139 150 109 0.70230237086799185 56 8412 59 4476 57 3081
7687 -3.4009252130342573 0.82624429069119987 2.7067772906082976 231 210 129 0.24234876395435545 53 5077 50 6395 49 6541
4535 -5.3383652265453536 -0.026016621648893994 3.3756953697930117 70 61 48 1.1840937532732638 56 8401 59 4480 57 4547 54 2357
5124 -4.8475799961171386 -0.61558688698811725 2.2816140678350894 198 157 57 0.77767784580090016 56 3284 57 2851 54 3442
4536 -5.0403789438925735 -0.032267306907385745 3.2048730864281563 71 22 0 1.912168518795438 60 2310 61 7693 59 4484 54 2355 53 2363 62 8619 52 2348
4617 -4.0561923883393955 1.9725133955530201 4.3808048625755767 126 68 32 1.4689522316783337 58 6485 60 5318 59 5207 57 5215
4537 -5.0135348778998647 0.00021694174085037582 3.2964111606433208 71 15 0 1.7603530371343497 56 2915 59 4493 57 1439 58 2290
5134 -3.8568242399103454 0.5384212105588948 3.0139167598390806 71 98 22 0.51296733853803522 53 2925 57 3015 54 2515 52 2805 50 2979 55 3054 49 3292
4538 -4.3424943003312357 0.037474925511586613 3.9039941107609488 16 20 0 1.8872992505623556 58 8464 59 4495 57 8263
32881 2.2216764335620485 2.3159852730014885 4.41492666508766 37 23 6 1.0965844660017852 74 9303 70 6137 73 4735
4539 -4.3115346423651886 0.097882052197958508 4.0630398644298014 29 31 0 0.31054263042290969 60 4707 59 4511 58 8497
7176 -3.4508529425291723 0.58610785488973705 2.9158492639757121 100 96 46 0.87748655909734197 53 4906 52 8191 50 5179 55 6435 49 5091
34497 1.2364808981924322 -2.4045743923782044 11.053939440614354 21 26 0 0.42740667890321704 72 7393 69 7318 68 7145 66 7548 65 5596
35879 5.3999846062900012 -0.31854993311055207 3.2026491824412 197 193 113 0.44561325940275048 66 3440 65 3877 64 4027 63 6655 51 7162 93 7226
4540 -5.4388176754179778 0.039691091015175636 3.2934402099391629 10 21 8 0.72990822615909834 60 4702 61 4675 59 4514 54 4579 62 4656
4621 -4.9016700980037653 -1.9857995893592908 3.0779619032908965 130 108 101 0.41675085820195124 56 5343 59 5228 57 5721
33622 1.682680640594473 0.40077900588108306 11.618739409255145 215 226 183 0.61930411333670654 80 1035 72 1216 69 1497 68 1525 66 1531
4541 -4.0503753545431183 -0.04171076385290106 1.5988927808513929 238 246 195 0.9002661852244972 53 3156 59 4521 57 4568 54 4568 52 4587 50 3270
36456 4.3780891527738897 1.0130023240762809 3.811874537301728 252 242 163 0.8182935230054813 65 7867 64 10482 63 12554 51 12542
33691 1.7385451188641299 -2.4653830826976644 11.011947138482489 32 33 18 0.33714954630522831 73 3371 72 2712 69 3442 68 3407 66 3540
7170 -3.2627108271413867 0.59223776268321637 3.1889670057138391 115 135 69 0.78437420549314385 53 8910 52 8135 50 7014
33764 2.4772956487545676 -0.53775682887044796 3.1781736933416682 206 197 139 0.42043878158917547 71 5993 72 4188
11791 -5.6446901160462053 -3.3216444543088639 10.110092844280299 220 235 250 0.88273874377101857 48 2185 49 2160 55 2166 47 1839 46 2159 53 5787 42 2617 92 2144
4542 -4.0783116007120803 -0.033079140515432662 1.5963821793667494 91 97 0 0.86460584596565548 53 8388 59 4535 57 8316 52 7685 50 8846
32885 3.2413628792758451 -1.5376535556896094 3.5118261526991033 233 235 244 1.6237985841718232 71 5867 70 6240 73 4935 72 8293
4543 -3.9800757178269914 0.17247634307677295 4.3887603600810703 29 37 0 2.3672129612690203 53 8412 59 4544 57 4580
5132 -3.8904094337623691 0.51201205303535213 3.2322039439239925 7 26 0 0.59809135769776556 59 2878 57 2982 54 4921 52 3694
4544 -4.3218853712576024 0.10691308834105166 3.1739252351989853 89 122 41 1.4653110527610178 58 4667 60 8603 59 4553 57 8367 50 3243
5926 -5.797109216387347 1.9062768622705999 3.9015315994974786 25 23 5 1.0396295135062226 58 2981 54 5332 60 3030
4689 -4.6969795678089588 0.43004887487132687 3.3293509704535755 178 201 140 0.2423679757368481 61 8067 59 5980 62 5993 52 7989
4545 -4.1007444451669643 -0.014789839765954611 1.6013229220877283 193 187 8 0.58767883088479911 53 4513 56 2585 59 4555 52 3127
34492 1.5232570613488772 -2.6154733082890926 10.84087478037616 33 30 0 0.214183822810912 72 7306 69 7206 68 7047
6951 -3.1086717250733997 0.26776532905728356 3.7091624789774618 60 83 18 0.42521569335320708 53 4596 52 4711
4546 -4.3416944193759344 0.11834287881165194 3.0878713868771679 162 192 113 0.49963301057164866 53 5344 60 4736 59 4568 54 4634 62 8723
5715 -4.7207080082355422 1.4178888430655188 3.9465788609855386 91 85 77 0.88357899314963151 61 2561 54 2616 52 1835 50 1281
4548 -5.3486852136970748 0.19540042905515431 3.1725947359368822 17 30 0 0.20306528330028537 58 2624 59 4621 60 2350
4693 -3.9340142375064016 -1.4442604913305075 2.4954297207033198 201 222 251 0.20781210808540224 58 6761 59 5993
4549 -4.601892562592151 0.29822364427080778 3.660988741916138 22 9 0 0.19384324038653597 56 4642 59 4646 62 8838
6948 -4.0532598399711164 0.022865641632534756 1.6013758397492641 104 109 2 1.1742546325110783 54 2841 52 4680 50 4885
35945 5.3756206748159139 1.764415952504417 3.9774490909852021 198 182 146 0.87252456763355324 66 5142 65 4898 64 4810
4550 -5.2287831646696397 0.27903566046993394 3.1539284605265863 23 39 0 0.64364020102651498 56 8674 59 4678 57 8540
7767 -5.0190152566319801 -3.3059673679880568 10.186678993252428 218 246 245 0.69245785157523743 52 6440 53 7135 50 7540 55 6145 49 6039 48 6092 47 4119 46 6198 43 7376 42 8490
36760 4.3592140662169605 1.0114989739851825 3.8351443554300189 26 22 0 0.89297320639656819 64 5025 63 4513 51 4454
5204 -5.2843998803009127 1.4937322431111768 5.8114220477800727 32 70 0 0.42411859342906999 56 6070 59 6292 57 4968 52 8266
34051 2.9813350200931121 0.69753677395166058 4.220949769006257 16 25 0 0.87479117960067165 72 504 69 325 68 339
33458 2.1474614915062769 0.26853903938608154 3.6444286625290361 169 164 26 0.33872160604461909 71 7084 73 8925
5925 -4.4734941002632258 2.0019085956563818 4.2532590560679306 80 88 65 0.74949465791338665 53 5278 54 5331 52 8666 50 6771
5934 -3.9133526680278066 0.020879805257535643 2.0214941546991421 155 150 0 0.81458291019331297 53 8424 54 5419 52 7720 50 8889 55 9078
33907 2.373899020577058 -2.6159231856640419 10.187413358302161 50 59 41 0.50540228430429768 70 6809 73 5704 72 7238 69 7132 68 6981
4552 -5.1686889997137664 0.49578644170175273 3.7912543256889792 117 136 79 0.81820313110169096 56 6803 59 4737 57 2951
4697 -4.1969481974648444 0.45288884162791637 3.1336402240240475 141 171 100 0.66400423908882278 56 4786 59 6034 62 4913
33762 2.4981081391226021 -0.58572479132568955 3.5742458358374085 24 56 2 0.51679803196888752 73 5347 72 4157 69 3929
4553 -3.7558879558042144 0.41387068690603834 3.1026216033019582 58 90 20 1.1973540535906047 53 4762 58 5848 60 5863 59 4752 57 8641 54 4866 50 9231 55 6257
34436 3.6524167040003741 1.1662191532862518 3.608085461094185 12 26 0 0.16432600854650239 72 6185 69 6135 66 6219
4554 -3.7541824912989346 0.4216328230249301 3.0636051051723876 64 85 49 0.64628832085380949 53 8755 59 4760 54 4875 50 9246
6952 -3.1823231717000651 0.25384246377364367 3.3202586528498128 8 23 0 0.3254480058090079 53 2764 52 4729
5723 -3.7775203919070854 1.2479825012709829 2.7425109320578613 18 23 0 1.729216783545644 57 5237 54 2706 52 5310 53 2744 55 2888
4555 -5.1778881452123446 0.40444958315270835 2.9226903863887705 215 216 140 0.71596504200364075 58 4872 60 3705 59 4774 57 4817 54 4876 62 3071
33414 3.1560439085938867 1.2277774002091406 3.5540991357505569 11 4 0 0.80981863438594648 70 5701 73 7541 72 6199
7256 -3.9195291831674157 0.54281803182111299 3.2236277371322886 11 18 1 0.1716586995095658 53 4827 52 8762
36119 4.7065876863933074 2.1596247437629761 5.1645198808407233 43 4 13 1.5672401994167842 66 692 64 593 63 609 51 919 93 577
4556 -5.0259609158713117 0.50011213557170076 3.429394351846887 23 39 0 0.30959670643659815 60 4917 59 4775 62 3060
7970 -5.2226576858317042 -3.3379995245550234 10.256960000462042 54 66 60 1.0268990394733737 50 807 49 828 48 868 53 551 55 872 47 838 46 1854 92 3953 42 2620 94 2193
4701 -5.5178651991767342 0.463559837490987 3.1862214564093909 55 8 0 0.69657322188559767 56 5809 59 6051 57 8704
4557 -3.7607925890208374 0.45623610850180807 3.0704474253549443 128 156 90 1.2765911440126267 56 5832 59 4789 52 8039
6947 -3.3817554909877039 0.22544425495321174 3.8747295922505898 164 169 125 0.7525737556792903 53 4561 52 4677 50 4855 55 9109 49 4782 48 4838 47 9252 46 4877 45 4867
7250 -3.9579532488646052 1.3673068712470406 2.882462100435276 160 161 128 0.96141762406321674 58 6552 60 6566 52 8695 50 6807 49 6991
5933 -4.263478289048594 0.071140868166143706 3.1575324974600183 162 192 131 0.069623676455430605 53 4501 54 5417
34422 3.9413739777744508 0.84065119112977671 3.9492114123015307 93 124 31 1.1236541896112617 72 9783 69 5886 68 4559
4559 -3.7640312419222313 0.47336358474395263 3.0619427017184804 157 176 92 1.5129684884521768 56 4814 59 4803 54 2497 52 2775
5212 -4.562859163671809 1.5404646709992016 5.6258804716431712 10 25 0 0.62041270997380837 59 6324 57 4999 54 6178
33761 3.5736028593482811 0.56472423467599864 5.0975217063639233 104 137 35 1.3432407952401473 73 7060 72 4143 68 8115 66 8505
4560 -4.4277917917609919 0.54286354471696774 3.3798884021584108 20 34 0 1.3049974378112943 56 2925 59 4811 57 2989
32911 3.3221889959014934 -1.4077791430495155 3.6515614024341136 223 232 243 0.84132800287985943 71 6055 70 6468 73 6122
5942 -4.292855208328116 -1.7087255877072196 2.8518782641180285 32 43 40 0.37948745255550637 57 5374 54 5465 52 5439
4769 -3.9251042151710567 1.1744072172590045 2.8198561467469347 129 144 87 0.622157805390255 56 6351 59 6576 57 6240 54 6477 53 5215 52 5258 50 6658 55 5582 49 5463
34076 3.1624097943507974 1.3210971759671881 3.4929297751696153 10 13 1 0.96389529134569318 72 564 69 614 68 1021
6967 -3.7816790831764013 0.49507716611317426 3.0854677419983965 14 26 0 1.1523606128377049 53 4814 52 4907 50 6984 55 7236
35448 4.5444083853136688 -1.8790105290339967 3.6947582240096164 217 231 241 0.36425212813930741 68 5136 66 5365 65 6492
4561 -4.8882784129466179 0.54597991350203157 3.2605557589056713 7 17 1 0.71639285826561838 58 4908 59 4828 57 2498
5286 -3.9753469216124562 0.53446811448296627 3.0616681827859011 166 164 45 0.91481829479730692 53 8869 57 5769 54 5957 50 5140 55 6374 49 5050
34795 4.1652442331331132 -1.2665269578873724 3.3182584868008997 242 246 246 0.47089781351053939 69 5317 68 3624 65 2939 64 2287
4563 -4.4584389072587705 0.48945944978959771 2.8037352840455112 0 0 0 1.9448968265505466 56 4862 58 2716
33422 2.5222337030969477 1.2961405250554974 3.1179672334928665 173 180 144 0.76646730620900927 74 11029 75 8913 73 7628 69 6809 72 6749
4564 -5.4248555762324511 0.55179063917487758 2.9048020805355237 35 56 1 0.95859143308567896 58 2461 60 5013 59 4874 60 2772 57 5848
4773 -4.1174865767661917 1.9605840721216676 4.377821964445225 39 40 30 0.60182256030861814 60 6524 59 6606 62 5303
4566 -5.3909332743521006 0.55829745868998715 2.8617006784844152 198 197 99 0.47340259706741189 56 4905 59 4885 57 4910
6964 -4.2777732979845489 0.47661909742048852 3.1531684123583954 132 154 80 0.82449829144527054 53 4798 52 4891 50 5104 55 5165
7847 -2.782254877235574 -3.1361916048965455 10.228042776748071 46 57 13 1.3723246742560384 53 7137 54 7267 52 6529 50 7552 56 7269 60 7436 61 6489 54 7263 55 7840
5284 -5.1377350681083325 0.55334949505033748 3.2776128444960944 102 131 60 1.0105032743578657 53 4829 57 5749 54 4931 52 4921
5941 -4.5480824867622935 -1.8738898052755475 3.0994410298500141 236 241 254 1.1912307835806235 53 5420 54 5460 52 6449 50 5762
4568 -4.9271321331754478 0.84568046007026398 3.917158862213908 26 25 8 0.26305598786669609 56 3002 59 4904 57 4917
5950 -4.6938779240625612 -1.5949453788476269 3.108411270405691 166 178 164 1.0463517319457416 53 1982 54 5569 52 5553
4777 -4.310185566300512 2.0114601795782896 4.3968974786086719 12 11 4 0.59442048683454685 61 5338 59 6625 60 5328
4570 -4.3214994218100564 1.4150826508845089 5.9874019719401081 79 119 61 0.6541289806492625 58 4998 59 4916 57 4931 54 5032
32913 3.0717674508212869 -1.3230052917374713 3.5557116721339321 235 237 250 0.77772776593065751 71 5293 74 9706 70 6515 73 5016 72 8585 69 6873
6968 -3.8687154413134874 0.49635235817234263 3.0645743140787269 22 35 0 0.66801948393768806 53 4821 57 5719 52 4909 50 9315
5803 -4.1275438458326379 -0.44025560693337118 1.2099601559510553 101 96 16 0.8975015191668364 53 3525 54 3889 52 3923
34150 3.0595816730440215 0.035951397391630009 3.2256299709322329 15 12 0 0.67954361485139081 72 1237 69 1524 68 1563
7993 -3.7918809908718853 0.65248887882993001 3.2674993568073432 8 14 1 2.0459121221821994 50 990 55 1081
36418 5.3027485428409271 -0.31134441900961685 3.3342370961809231 232 223 178 0.51709718803010696 65 3909 64 7788 63 6683 51 11694 93 7255
4571 -5.2534435125697323 1.4380428775394873 5.9742552559077389 81 117 62 0.59923743713747146 58 6115 59 4924 57 6602 54 6074
7336 -4.010540208263742 1.0469629809755838 2.8504521772626963 255 165 129 0.76604421816976254 53 391 50 623 55 379
33789 2.3708030762169927 -4.0776108644483662 10.77380667060125 40 56 67 0.4330833188459699 71 5329 72 4563 69 6896
4572 -5.1221424622842191 1.4444541906637358 5.9964126161415443 35 65 7 0.29283014366110049 56 4950 58 5007 59 4925 57 4939
7986 -2.9831586275641064 0.78011381812639802 2.9484225353741951 77 80 51 0.91013496940967242 50 972 55 1057 49 1107
4781 -4.752145474976869 -1.5668660828266314 2.938979256732579 223 210 178 0.86131000135092251 60 6902 59 6655 57 5471
4573 -4.4415939437219345 1.4350136193988603 5.951757692264426 4 25 0 0.76485653508451079 56 4949 58 5005 59 4926 57 4938 54 5041 53 4948
36488 5.1388951734732053 -0.40824934916120764 2.9123608405370303 175 198 132 0.60887290373633296 65 5642 64 7570
6963 -4.6832529655789354 0.4462735962037368 3.256172032919781 105 133 32 0.86484049602541413 54 8893 52 4859 50 5073
5292 -5.1805986686324745 0.6874676048676488 3.2122809421818652 126 94 64 0.61696298833069807 60 6082 57 5898 54 6035
5949 -3.9951176288014176 -1.3240918396570425 2.4867986511141678 39 32 0 1.1039698251241796 57 3625 54 5525 52 2647
33803 3.2144184164402008 1.3853844378027944 3.3604963621981403 114 124 61 0.31612780174961347 73 7685 72 4882 69 4968
4576 -5.4526569881408324 0.74861511061903596 3.2760268176879133 6 20 0 1.2165378404360183 58 6117 60 5059 61 3181 59 4937 57 2712 62 5108
4721 -4.3185608435008582 1.4517647357197265 5.7511219703652525 45 73 25 0.99118210307642407 61 8350 54 5062
33722 2.2941187535773753 0.52300854931752694 3.474170586584759 27 42 0 0.96330065726251757 73 2687 72 3293 69 2344
4577 -4.2383025393969591 1.6219032415044248 6.5339050666251373 24 59 1 1.6025865304735751 56 6045 60 6116 59 4944
34396 3.2294067266152875 -1.3220102329944385 3.6527530272730404 78 87 51 1.3508173390135179 72 4550 69 5394 68 3575
33743 1.6770009254078093 0.36043321353396157 11.610485951391777 234 243 204 0.71550081343956939 80 4107 72 3707 66 4462
5238 -5.4332929982535525 1.9239640995960217 4.6225551334379071 167 148 113 0.83790620943344196 53 6570 57 5176 52 8565
34093 2.7795955228935281 -0.77778936894009287 4.50100173223447 198 210 166 0.26436004020430048 72 685 69 840 68 921
4578 -4.1756530225454389 1.4762609767705728 5.9351991349921409 16 50 0 0.71939460219054696 56 4959 58 6130 60 5072 59 4947 57 4948 54 5060 62 6238
32857 3.2753930511286455 1.4797827414795273 3.6265649941346552 134 147 121 0.6018239345947175 71 7925 70 5875 73 7684 72 6352 69 6311 68 6035
33736 2.5032967066948948 -1.2048832645667327 3.2612707854283336 41 47 16 0.61837966555833923 70 6550 72 3573 69 3576
5747 -4.5713343339226276 1.2127845109955662 4.1089024627491657 8 15 0 2.0503844380895981 53 995 54 3018
34094 3.9655590124349085 -0.24681134724912637 3.9969198427124524 61 89 14 0.75042760808990305 72 884 69 871 66 944 65 1088 64 1059 63 1512 68 953
4580 -4.2039068566912459 1.5944299736765761 5.7371305592054576 34 55 25 0.7300351720260555 60 2855 59 5001 58 6209
4725 -5.0380556829144192 1.4783571105370803 5.5981515550599248 0 19 0 0.53742281825272553 61 5496 59 6307 57 5990
33726 2.9879224473541206 0.45657197055083831 4.975303200445639 31 40 19 1.6697472834275748 73 4042 72 3345 69 3056 68 8063 69 8272 66 8468
4581 -3.8816922135501568 0.82491031122235836 3.1335011732146181 19 40 0 1.089475523840066 60 2848 59 5002 58 2807 57 2563
4582 -5.6036458601357975 0.95352285262307379 3.3016513679759307 20 23 2 1.4418706688096847 58 6243 59 5014 62 2834
7799 -3.4539597842260599 -0.44769849182849963 3.5144208584296921 97 119 32 0.58042285426802165 52 7188 50 8315 46 7017
4583 -5.3963835527028348 0.94655555771674971 3.188077114570945 198 174 70 0.37344275458041648 56 5025 59 5019 57 5039
5236 -5.5005001759477521 1.919397599592426 4.732707206557234 128 106 86 0.95387703813115576 53 5172 57 5160 54 3086 52 5217
4584 -5.357497954738256 0.98383787991077298 3.272423698195611 154 178 140 0.59411813674532299 60 6263 59 5020 57 6060 54 5126
4729 -3.9796738647240608 1.5441307508062527 5.6339687752597003 25 45 6 0.87753708486836057 60 6210 61 5119 59 6322 62 3711
4585 -3.979738671214025 0.94735370031688804 2.877800623253715 14 19 0 1.037866677109714 58 6293 59 5043 57 6096 53 5105 50 6455
5246 -5.1452235969488838 -1.5275283853699815 2.7556269139509206 61 44 16 0.58822295612851716 59 6897 57 5244 54 5543
5755 -5.6557060972640318 1.9619772067974039 4.6837506650908018 27 19 15 1.0622679020428529 53 3517 54 3093 52 3019
34700 4.040862385951403 0.20050399123720042 3.8921792071530952 160 159 103 0.43914573853081246 69 2280 68 2294 66 3259 65 4271
4587 -3.8762175796189129 0.95843692817962167 2.7578355177102689 139 157 72 0.73157780477141399 60 6340 59 5067 57 6876 52 8480 53 6111 49 6648
33446 3.1330555385797605 -1.5796839605330799 3.2678019083843211 81 89 66 0.8424661658835173 70 5123 73 7995 72 4679 69 6673 68 6465
4588 -5.3210198859803963 1.0164832833888373 2.8953505216049571 21 28 1 2.0122369572041117 56 6237 59 5068 57 5098 54 5180 62 2901
4733 -3.7688354140591311 0.83574489976278155 3.1314824006337822 74 101 13 0.38623167954759019 53 5022 59 6345 54 6199 52 8320 55 5329 49 6466
35348 4.3485508259548533 -1.0998566937265142 3.8424658230708451 232 247 234 0.42392105436110206 68 5383 66 3634 65 3033
4589 -5.1446864850738052 0.94600659773890439 2.6930977406704319 168 170 75 0.44070972033440742 56 5079 59 5074 57 6885
7282 -4.2933942713679691 0.16313476001676316 2.8711229289956126 116 131 30 0.24073213360383588 54 572 52 567
